ply
		format ascii 1.0
		element vertex 906
		property float x
		property float y
		property float z
		property uchar red
		property uchar green
		property uchar blue
		end_header
		-0.204170 -0.101967 0.425847 245 147 112
-0.230209 -0.088841 0.444733 79 99 110
-0.254296 -0.061391 0.440352 138 128 103
-0.224287 -0.089150 0.451447 9 25 32
-0.235715 -0.005014 0.393131 40 43 36
-0.240665 -0.011866 0.407778 84 88 77
-0.230936 -0.002361 0.399990 45 47 33
-0.239511 -0.019520 0.434183 29 43 41
-0.237869 -0.076951 0.497343 89 78 58
-0.252696 -0.054112 0.479738 26 49 51
-0.234390 -0.018408 0.443499 46 45 27
-0.230706 -0.013949 0.439931 87 102 105
-0.249981 -0.063771 0.501675 34 32 19
-0.222402 -0.012500 0.446619 29 40 38
0.067677 0.101687 0.529466 43 37 11
0.085167 0.120867 0.534434 118 137 144
-0.246065 -0.063727 0.525341 159 149 124
-0.247605 -0.059167 0.519004 19 37 38
-0.239019 -0.064887 0.551868 37 35 22
-0.218291 -0.027351 0.664178 83 118 132
-0.202404 -0.027483 0.514869 38 40 29
-0.168271 -0.013186 0.653354 84 117 126
-0.231493 -0.060234 0.577941 31 33 19
-0.198878 -0.026877 0.515120 128 132 133
-0.213785 -0.064491 0.611792 205 194 174
-0.213785 -0.064491 0.611792 174 194 205
-0.220830 -0.063330 0.606488 92 86 64
-0.212084 -0.061190 0.634206 25 38 40
-0.204562 -0.061385 0.643770 43 42 24
-0.207262 -0.061092 0.639747 131 151 162
-0.191098 -0.015353 0.718801 246 222 124
-0.205963 -0.060502 0.645138 30 43 45
-0.016788 0.071041 0.680047 211 188 48
-0.110459 0.023123 0.706764 33 178 194
-0.089716 0.022035 0.711375 194 168 31
-0.138823 0.043107 0.760007 0 90 106
0.067549 0.133065 0.676030 131 126 97
-0.097737 0.029460 0.706299 0 127 161
-0.014917 0.074717 0.687846 205 175 1
-0.014917 0.074717 0.687846 1 175 205
-0.088376 0.034637 0.707480 133 110 0
-0.088376 0.034637 0.707480 0 110 133
-0.078613 0.039659 0.706111 207 180 39
0.070025 0.132020 0.680772 111 133 139
-0.055430 0.052726 0.703764 162 137 0
-0.053137 0.052880 0.709899 0 112 140
-0.174442 -0.008771 0.738349 245 248 195
0.063176 0.130961 0.690436 21 134 174
-0.144578 0.149688 0.729470 181 49 28
-0.034408 0.065883 0.708123 0 122 150
0.010274 0.093603 0.699489 207 177 1
-0.142639 0.012861 0.740116 0 179 206
0.050484 0.122508 0.694999 168 51 18
0.065527 0.133770 0.694933 18 54 162
-0.010814 0.080832 0.707082 163 138 0
-0.010814 0.080832 0.707082 0 138 163
-0.010563 0.081288 0.709117 160 137 0
0.044044 0.118222 0.700658 113 146 191
0.036613 0.112938 0.703636 197 161 135
-0.143770 0.011728 0.747548 6 131 169
0.097951 0.161434 0.700748 30 28 15
0.065861 0.135252 0.701733 55 93 158
0.083399 0.149848 0.707376 152 27 0
-0.194223 -0.062122 0.666614 26 40 38
0.004756 0.092668 0.717055 212 180 1
-0.162147 -0.034994 0.719776 87 136 144
0.057458 0.130225 0.712653 209 127 105
0.033232 0.112761 0.724613 1 180 212
0.099278 0.164025 0.718270 149 24 2
-0.168045 -0.012088 0.763514 103 207 236
-0.173043 -0.122181 0.806175 32 30 15
-0.074461 0.045988 0.754607 0 71 98
-0.075326 0.045353 0.755487 156 136 15
-0.075326 0.045353 0.755487 15 136 156
-0.139191 0.009384 0.772005 129 174 119
-0.136430 0.010774 0.771433 27 200 210
-0.104036 0.064316 0.785534 156 131 31
-0.104675 0.061624 0.787826 0 75 99
-0.070700 0.047080 0.760079 121 99 0
-0.132453 0.012329 0.775650 18 72 42
0.119916 0.181882 0.733270 183 150 0
0.119916 0.181882 0.733270 0 150 183
-0.099864 0.028200 0.778535 155 32 1
-0.062253 0.050379 0.769060 0 80 98
-0.060519 0.051297 0.769347 118 103 10
-0.078941 0.039794 0.775938 0 57 56
-0.044423 0.059268 0.768626 178 142 2
-0.128808 -0.058054 0.639686 81 99 100
-0.151032 -0.009250 0.786163 247 255 255
-0.151032 -0.009250 0.786163 255 255 247
-0.076962 0.040984 0.777326 166 149 43
-0.075129 0.041617 0.778062 5 135 165
-0.077316 0.040105 0.778461 52 52 0
-0.098225 0.027338 0.785634 134 143 163
-0.098225 0.027338 0.785634 163 143 134
-0.108023 0.021170 0.788567 134 159 169
-0.073161 0.041882 0.781035 171 141 7
-0.076974 0.039440 0.781941 54 133 144
-0.077920 0.038802 0.782617 59 55 10
-0.079794 0.037517 0.783446 0 77 101
-0.079794 0.037517 0.783446 101 77 0
-0.145869 -0.008123 0.791454 107 230 234
-0.145869 -0.008123 0.791454 234 230 107
-0.112876 0.017562 0.791533 122 153 186
-0.145542 -0.008062 0.791511 234 230 107
-0.145542 -0.008062 0.791511 107 230 234
0.031997 0.109477 0.761853 167 153 118
-0.106621 0.020655 0.792672 0 37 169
-0.106621 0.020655 0.792672 169 37 0
0.048777 0.122421 0.760203 1 33 128
-0.064954 0.045763 0.783226 92 80 0
-0.024877 0.070360 0.774428 24 50 27
-0.024877 0.070360 0.774428 27 50 24
-0.061129 0.042291 0.786976 0 105 123
-0.065048 0.045092 0.785817 170 149 24
-0.105782 0.020016 0.796737 123 149 155
-0.009304 0.080843 0.775370 172 154 132
-0.009304 0.080843 0.775370 132 154 172
-0.146117 -0.014192 0.793510 254 254 254
-0.146117 -0.014192 0.793510 254 254 254
-0.108664 0.088304 0.757162 178 151 36
-0.089313 0.028924 0.797101 7 34 155
-0.063250 0.044523 0.790838 166 146 23
-0.074146 0.037380 0.794565 0 63 82
-0.091880 0.026159 0.799057 175 142 111
-0.093327 0.088882 0.794233 111 154 171
-0.073385 0.037228 0.796586 147 139 30
-0.102069 0.019262 0.803892 139 154 186
-0.105620 0.016345 0.804510 173 45 8
-0.067864 0.040356 0.797407 1 144 176
-0.097963 0.028038 0.811014 162 47 16
0.040611 0.112535 0.774985 24 78 125
0.046255 0.116934 0.774720 167 110 91
-0.074065 0.040634 0.807301 36 150 163
-0.015508 0.073784 0.786733 177 152 132
0.117371 0.173020 0.767540 8 111 143
-0.055504 0.044953 0.814120 150 115 0
-0.030109 0.062658 0.792043 141 149 178
-0.148995 -0.059261 0.736271 41 39 26
-0.052436 0.048545 0.797953 0 69 93
-0.052436 0.048545 0.797953 93 69 0
-0.100523 0.016856 0.810152 20 43 143
-0.060998 0.042458 0.801501 131 110 3
-0.051960 0.038317 0.788461 9 141 165
-0.098629 0.018428 0.810427 194 153 149
-0.049528 0.049323 0.800905 0 99 129
0.042257 0.112195 0.782304 140 48 11
-0.070438 0.035532 0.806171 0 49 74
-0.030620 0.060797 0.798075 185 160 130
-0.089768 0.029644 0.816903 123 160 216
-0.081988 0.027993 0.811020 163 38 6
-0.064679 0.037950 0.808785 2 142 179
-0.094293 0.018653 0.816030 178 158 133
-0.096765 0.026358 0.775676 48 64 140
-0.065046 0.036839 0.810867 60 54 0
-0.083817 0.024229 0.815919 13 53 128
-0.078962 0.026965 0.816945 169 38 8
-0.009877 0.073192 0.800819 1 145 180
-0.065150 0.035504 0.813861 164 149 24
-0.057597 0.040218 0.812351 30 139 161
-0.058229 0.039794 0.813103 113 81 0
-0.058229 0.039794 0.813103 0 81 113
-0.020526 0.064566 0.804966 175 145 0
-0.011834 0.071132 0.802759 2 139 177
-0.048446 0.045212 0.813275 112 91 0
0.005057 0.001107 0.778227 69 142 162
-0.056577 0.030258 0.816785 162 142 69
-0.055787 0.027998 0.809989 0 62 80
-0.075314 0.026750 0.822023 169 38 8
-0.024310 0.021538 0.788761 0 93 120
-0.065235 0.014619 0.802063 134 52 15
-0.023978 0.021352 0.791011 36 151 178
-0.023978 0.021352 0.791011 178 151 36
-0.097978 0.010364 0.830185 9 66 51
-0.060769 0.034247 0.822364 67 71 21
-0.060769 0.034247 0.822364 21 71 67
-0.085865 0.016656 0.828979 205 164 136
-0.085865 0.016656 0.828979 136 164 205
-0.048283 0.035022 0.817175 169 146 18
-0.075945 0.022888 0.827548 125 161 169
-0.075986 0.022727 0.827593 169 161 125
-0.060804 0.033267 0.824424 0 46 65
-0.032948 0.017346 0.810943 65 46 0
-0.097708 0.005280 0.795138 255 255 255
-0.114660 0.064783 0.739920 162 53 32
-0.033067 0.050446 0.821921 32 59 39
-0.073261 -0.016432 0.799263 151 191 164
-0.094114 0.006810 0.835926 175 204 125
0.044987 0.105294 0.807919 37 61 39
-0.057311 0.032866 0.829202 37 147 165
-0.091603 0.007849 0.836502 53 82 52
-0.058136 0.031494 0.830507 0 85 115
-0.058136 0.031494 0.830507 115 85 0
-0.078555 -0.074934 0.706618 105 123 124
-0.085556 0.011245 0.836536 179 53 13
-0.092449 0.006443 0.838363 27 244 253
-0.086109 0.010605 0.837372 172 66 8
-0.015259 0.060557 0.822582 84 109 105
-0.017962 0.069239 0.819329 88 92 67
-0.007250 0.066158 0.821366 67 92 88
-0.089004 0.008126 0.839517 184 169 18
-0.058561 0.029534 0.832568 0 151 185
-0.088653 0.008354 0.839514 193 170 6
-0.029047 0.049803 0.827861 36 68 37
-0.002036 0.005349 0.772536 114 91 0
0.064895 0.116566 0.814925 9 145 174
-0.017158 0.019680 0.816991 175 155 30
-0.017836 0.018859 0.818216 37 152 173
-0.016337 0.019970 0.818564 132 114 0
-0.020061 0.017083 0.819524 0 115 144
-0.021297 0.045637 0.843178 226 211 130
-0.127215 0.187380 0.945943 130 211 226
-0.084041 -0.048637 0.812080 29 31 20
0.108877 0.138918 0.834320 132 154 160
-0.081211 -0.026092 0.835770 135 99 63
0.208042 0.226461 0.833731 106 128 134
-0.018798 -0.091633 0.770970 43 45 31
-0.041612 -0.059936 0.839687 19 33 32
-0.003920 -0.073280 0.847454 159 140 110
0.055646 -0.022084 0.910038 24 35 43
0.063245 -0.010298 0.909439 32 30 17
0.063245 -0.010298 0.909439 17 30 32
0.439754 0.432699 0.902836 140 137 96
0.082929 -0.003238 0.917860 112 144 251
0.136922 -0.040902 0.922244 28 25 16
0.165214 -0.032054 0.729990 139 158 201
0.271636 -0.157073 0.874365 36 38 27
0.193015 -0.054304 0.925632 82 91 94
0.174769 -0.057669 0.855015 94 91 82
0.201772 -0.079962 0.916975 80 89 92
0.201772 -0.079962 0.916975 92 89 80
0.232650 -0.116217 0.900471 119 145 157
0.232650 -0.116217 0.900471 157 145 119
0.224557 -0.059283 0.927432 25 32 41
4.266658 -2.595823 -6.276441 110 102 81
4.266658 -2.595823 -6.276441 81 102 110
3.194843 -3.944973 -4.856657 35 29 7
9.428047 0.769959 -14.856457 109 140 149
9.610226 1.628815 -15.328040 145 136 105
9.610226 1.628815 -15.328040 105 136 145
9.291759 0.358802 -14.890376 118 109 78
9.693629 1.159434 -15.618338 114 147 162
-1.829046 1.004554 3.054874 124 118 96
10.468611 3.195722 -17.332969 127 158 167
9.470669 0.591103 -15.752519 122 113 82
8.729665 -0.912365 -14.633365 32 43 51
2.835128 -4.048886 -4.930752 95 88 60
2.835128 -4.048886 -4.930752 60 88 95
9.197584 2.438130 -17.135306 83 77 51
8.344450 1.501188 -16.454955 17 30 32
8.265959 1.547978 -17.369970 115 106 75
8.265959 1.547978 -17.369970 75 106 115
9.103626 3.060361 -19.161042 79 73 47
8.397798 1.169898 -18.879800 68 90 96
8.901705 2.929399 -20.493125 67 61 39
8.222355 2.211240 -19.822134 29 41 41
10.351448 -8.344807 -27.710487 135 129 107
2.099445 -1.983475 -5.366441 101 123 129
2.095713 -1.982278 -5.361061 128 122 100
2.096737 -2.065617 -5.390792 98 120 126
1.951923 -1.379831 -5.099653 128 122 100
5.166543 -4.204176 -14.923798 103 119 126
5.647996 -0.303768 -16.338178 146 139 123
6.473223 0.143354 -18.872133 127 143 150
1.805495 -1.233591 -5.413235 141 128 93
1.739207 -2.148393 -5.310315 97 117 128
1.905057 -3.952338 -5.941839 136 130 104
1.693860 -2.173063 -5.309294 98 118 129
1.724320 -1.215576 -5.418278 207 177 1
1.767541 -3.724963 -5.657937 93 113 124
1.740591 -1.184214 -5.572533 207 178 0
3.414754 -3.105714 -10.850722 96 118 124
1.762785 -3.711155 -5.899343 139 133 107
1.680662 -1.212694 -5.572540 0 178 207
1.469206 -1.567688 -5.005707 207 178 0
1.723633 -4.002960 -5.927628 72 101 106
1.657659 -1.175647 -5.695611 207 177 1
1.640372 -3.227645 -5.840653 111 133 139
1.619855 -3.862583 -5.915559 100 94 72
1.554908 -1.197623 -5.734608 0 174 207
1.554908 -1.197623 -5.734608 207 174 0
1.582924 -1.114791 -5.874725 3 171 205
1.593091 -1.057113 -5.921084 205 171 3
2.821719 -4.300571 -10.516927 0 184 212
1.398384 -2.173688 -5.353615 212 183 3
1.397647 -2.206544 -5.366038 0 182 214
6.048137 -8.523885 -22.301794 214 182 0
1.393784 -2.285030 -5.383264 0 184 212
2.749023 -4.193893 -10.463674 214 182 0
1.558386 -1.089914 -5.978057 1 169 203
1.377306 -1.419896 -5.303436 187 153 2
1.373491 -1.451295 -5.287918 0 161 193
1.395336 -2.324497 -5.401943 212 183 3
3.367778 -5.210680 -12.801662 1 186 214
1.370954 -2.160336 -5.414944 215 185 13
1.345208 -1.460991 -5.311120 0 169 199
1.335875 -1.439707 -5.307287 196 165 0
1.468035 -3.986282 -5.975672 34 52 53
1.515922 -1.053093 -6.092522 223 194 12
1.434845 -2.353276 -5.891775 2 181 210
1.305179 -1.795599 -5.456760 214 182 3
1.325943 -2.241096 -5.560651 0 183 215
1.319683 -2.252052 -5.557939 216 184 1
1.319683 -2.252052 -5.557939 1 184 216
1.315911 -2.148430 -5.562341 214 182 0
1.302722 -2.031915 -5.548975 3 182 214
1.334059 -2.430263 -5.714200 212 185 0
1.300197 -2.140447 -5.616046 1 184 216
1.286811 -2.054296 -5.570210 214 182 3
1.233451 -1.533535 -5.340282 4 179 212
1.493006 -4.338002 -6.446876 39 38 20
1.286520 -2.007224 -5.605083 1 182 214
1.286520 -2.007224 -5.605083 214 182 1
1.286044 -2.118250 -5.628141 1 184 216
1.273288 -1.757171 -5.563797 214 182 3
1.273288 -1.757171 -5.563797 3 182 214
1.271006 -1.616828 -5.547850 212 180 1
3.266314 -0.099965 -14.194586 109 131 137
1.273736 -2.055984 -5.630559 214 182 0
1.273192 -1.705979 -5.618928 1 180 212
2.087930 -3.335044 -8.928139 216 184 1
2.087930 -3.335044 -8.928139 1 184 216
1.279905 -2.096968 -5.673438 214 182 0
1.268438 -1.539853 -5.623519 1 180 212
1.468689 -0.948325 -6.488628 246 245 162
2.076691 -3.294867 -8.972679 1 184 216
1.272298 -2.111374 -5.695845 216 184 1
1.306050 -3.113724 -5.876039 14 67 178
1.362620 -1.390624 -6.069125 205 171 3
1.254379 -1.601156 -5.646006 1 180 212
1.270274 -2.551570 -5.777006 214 186 1
1.256232 -2.013008 -5.711523 0 182 214
1.245517 -1.536425 -5.655534 212 180 1
1.245517 -1.536425 -5.655534 1 180 212
1.256347 -2.233375 -5.747444 216 184 5
1.245150 -2.004845 -5.746325 1 184 216
1.245150 -2.004845 -5.746325 216 184 1
1.244068 -1.984881 -5.742794 0 182 214
1.383363 -1.657656 -6.357357 182 149 0
1.233836 -1.572230 -5.709432 3 156 193
1.252633 -2.478473 -5.851049 216 184 1
1.252633 -2.478473 -5.851049 1 184 216
1.244839 -2.701569 -5.844604 216 184 1
1.238282 -2.454662 -5.810551 1 184 216
6.724656 3.196895 -31.015405 41 40 22
1.462304 -0.846727 -6.782756 150 190 238
1.462304 -0.846727 -6.782756 238 190 150
1.329122 -3.316089 -6.237051 3 171 205
1.252795 -2.182787 -5.942949 211 179 0
1.225364 -2.003754 -5.780249 4 168 203
1.309293 -1.938104 -6.145632 179 141 0
2.583408 -4.006824 -11.586114 12 180 214
1.277018 -3.957134 -6.108166 39 37 24
1.212690 -1.759043 -5.753108 2 136 176
1.225802 -2.097313 -5.836075 190 154 0
1.429132 -1.074184 -6.745191 255 253 255
1.217467 -1.984124 -5.823254 175 137 0
1.210760 -1.944724 -5.804433 0 135 173
1.210760 -1.944724 -5.804433 173 135 0
1.246098 -3.220461 -6.025008 6 171 204
1.215119 -2.184469 -5.863601 174 137 4
1.196185 -2.120180 -5.941481 4 140 176
1.204322 -2.034909 -5.859465 176 140 4
1.203657 -1.940630 -5.854456 1 141 177
4.800893 0.923782 -23.291059 167 161 139
1.201043 -1.478289 -5.858775 0 143 178
1.183812 -1.988929 -5.855367 178 143 0
1.226793 -3.165058 -6.096375 2 171 202
1.147096 -3.038896 -5.749665 202 171 3
1.453577 -2.314826 -7.131653 0 149 183
1.160623 -1.905718 -5.824058 183 149 0
1.211707 -3.797653 -6.159951 20 38 39
1.180778 -2.182456 -5.961109 182 147 1
1.200926 -2.444799 -6.074995 0 141 176
1.273374 -1.484438 -6.398579 183 149 0
1.167843 -1.677194 -5.914231 30 156 181
1.167843 -1.677194 -5.914231 181 156 30
7.315887 4.329832 -36.572785 22 35 37
0.845852 -1.559277 -4.408451 180 145 1
1.155315 -2.373612 -5.941717 1 145 180
1.072529 -1.348843 -5.504997 183 149 0
1.191481 -3.184105 -6.139487 0 124 155
1.162262 -2.028980 -5.966351 183 148 4
1.164482 -2.158563 -6.001668 1 145 180
1.154468 -1.495341 -5.925027 183 148 4
1.142475 -1.951188 -5.919808 0 149 183
1.157446 -1.939447 -5.985351 183 149 0
0.941232 -1.834433 -5.288143 0 149 183
1.178612 -3.155546 -6.187484 145 118 3
1.168218 -2.569290 -6.104063 2 142 178
1.149892 -1.888677 -6.010122 183 149 0
1.150946 -2.374892 -6.086443 1 145 180
1.346258 -1.418514 -7.017379 187 153 2
1.128883 -1.699015 -5.966968 2 139 178
1.129835 -1.684406 -6.025337 174 147 6
1.134433 -2.431360 -6.121895 2 145 177
1.120048 -1.481784 -6.043689 180 151 0
1.120048 -1.481784 -6.043689 0 151 180
0.429465 -1.238714 -3.371082 180 150 4
1.141790 -2.332193 -6.224201 7 146 179
1.120007 -1.560219 -6.062342 178 151 2
1.123575 -2.097727 -6.117305 17 152 180
1.118153 -1.991579 -6.101239 156 143 28
1.114826 -1.897707 -6.084607 6 149 180
1.114759 -1.891899 -6.115019 181 150 0
1.110433 -1.618765 -6.089589 9 146 162
0.943948 -1.813714 -5.385109 39 54 33
1.109026 -2.468690 -6.202764 80 150 179
1.093975 -1.666663 -6.091116 188 157 14
1.120902 -2.598091 -6.282530 88 149 175
1.106040 -1.924696 -6.123685 34 63 0
1.097110 -1.626297 -6.144096 26 133 141
1.105868 -2.433747 -6.245864 170 158 132
1.397541 -1.869971 -7.566234 13 146 173
1.070848 -1.439701 -6.191158 180 150 18
0.965180 -1.693757 -5.656900 0 151 185
1.070183 -1.826773 -6.242853 185 151 0
1.047200 -1.155239 -6.095909 5 47 170
1.054064 -1.642336 -6.165486 188 155 0
1.056206 -1.226609 -6.224258 129 150 188
1.056889 -1.941844 -6.309368 39 61 23
1.023824 -1.196965 -6.122661 140 157 206
1.042181 -1.824618 -6.304120 189 148 22
1.057611 -1.318917 -6.382751 30 47 168
1.276492 -2.298956 -7.425707 31 55 33
1.040517 -1.807789 -6.325121 11 154 182
1.038797 -1.838294 -6.323420 188 152 6
1.031781 -1.398236 -6.299694 0 152 186
1.031781 -1.398236 -6.299694 186 152 0
1.034598 -1.559123 -6.334564 9 113 136
1.033330 -1.556583 -6.329481 136 113 9
0.484819 -0.843471 -3.651584 130 146 188
-8.350031 2.177592 39.804873 169 150 9
1.007385 -1.842819 -6.393903 51 151 185
1.009430 -1.820013 -6.414884 182 154 10
1.009914 -2.165407 -6.467154 40 55 27
1.004630 -1.785887 -6.413830 182 155 6
1.006027 -1.769714 -6.433454 15 152 184
1.019718 -1.098064 -6.496459 180 155 135
1.016451 -1.132089 -6.484497 133 166 186
1.000235 -1.120122 -6.432310 176 147 129
0.995313 -1.152730 -6.462390 105 133 193
0.987612 -1.549651 -6.472696 172 144 8
8.589266 24.066840 -55.661939 31 45 43
0.994906 -1.254464 -6.525817 170 95 2
0.982555 -1.099111 -6.485299 25 52 156
0.978067 -2.165502 -6.548617 181 160 143
0.974663 -1.715189 -6.552234 10 154 189
0.976529 -3.027262 -6.673513 136 112 6
0.962784 -2.149782 -6.602724 143 160 181
0.750592 -1.389454 -4.880636 169 146 30
0.950583 -3.132554 -6.806218 4 118 148
0.926342 -1.974472 -6.678181 183 157 2
0.909945 -3.216535 -6.733067 0 83 110
0.918371 -1.823465 -6.714147 188 153 11
0.897277 -1.791358 -6.760100 6 85 88
0.906773 -1.075953 -6.959036 147 63 27
0.884073 -3.926740 -7.031893 20 29 32
0.884073 -3.926740 -7.031893 32 29 20
0.864162 -1.030189 -6.788105 105 136 199
0.847911 -1.060425 -6.852421 165 44 27
2.612744 1.897389 -25.833069 24 37 39
0.696903 -3.470993 -7.135392 45 44 26
0.696903 -3.470993 -7.135392 26 44 45
0.473994 -4.099792 -6.769906 84 78 52
3.494962 19.896058 -47.820464 91 136 179
1.184622 0.216550 -22.922132 164 157 138
1.429578 4.217135 -30.749091 69 90 98
1.031144 1.931733 -25.485076 78 73 53
0.116319 -4.369156 -5.957609 110 135 145
0.340258 8.872185 -37.390241 31 33 22
0.340258 8.872185 -37.390241 22 33 31
0.240261 2.843763 -29.186889 38 40 27
0.240261 2.843763 -29.186889 27 40 38
0.303694 7.852742 -35.458927 34 36 25
0.005712 -4.377936 -6.047814 79 105 111
0.043533 -0.852098 -15.279720 135 129 107
-0.013211 -4.405318 -5.958204 85 105 116
-0.063979 -4.421447 -5.941120 154 148 126
-0.149458 -4.253531 -6.445088 69 85 92
-0.258118 -4.376995 -6.157259 101 93 70
-0.273310 -4.336833 -6.295999 111 129 140
-0.281950 -4.328836 -6.307682 88 77 57
-0.284447 -4.341617 -6.264217 76 98 104
-0.313397 -4.340956 -6.244884 127 121 99
-1.047723 -0.172740 -17.559939 134 152 159
-1.047723 -0.172740 -17.559939 159 152 134
-0.508524 -4.324198 -6.443725 70 90 101
-0.521594 -4.434475 -6.082315 124 122 109
-0.516317 -4.462890 -5.978090 116 129 143
-1.388010 -0.905200 -16.990147 137 131 109
-0.615130 -4.388648 -6.269920 68 90 96
-0.651307 -4.350137 -6.369471 122 115 99
-0.809610 -4.392718 -6.303281 30 46 53
-0.910632 -4.430641 -6.184016 72 69 54
-0.927316 -4.448056 -6.160055 72 98 104
-0.991161 -4.467739 -6.125994 102 96 74
-0.991161 -4.467739 -6.125994 74 96 102
-1.013233 -4.469324 -6.131250 101 95 73
-1.026693 -4.472770 -6.103726 75 97 103
-1.113673 -4.417017 -6.321385 94 88 66
-1.298136 -4.404783 -6.442392 106 126 131
-1.318488 -4.436023 -6.348509 106 100 78
-1.334245 -4.452474 -6.323326 47 63 70
-1.415319 -4.368511 -6.610967 75 69 47
-1.428689 -4.356541 -6.633567 90 112 118
-0.676240 -2.800945 -3.863830 67 68 37
-1.606199 -4.362091 -6.642048 71 93 99
-1.709378 -4.256976 -7.062595 124 118 96
-1.709378 -4.256976 -7.062595 96 118 124
-1.637157 -4.359874 -6.666090 72 72 48
-1.584830 -4.425498 -6.437153 60 79 86
-1.695988 -4.343369 -6.713583 77 71 49
-0.272902 -0.995146 -1.544862 48 74 86
-1.577165 -4.506122 -6.187979 68 59 54
-1.629434 -4.474646 -6.271727 53 77 83
-1.739370 -4.463165 -6.361119 121 111 86
-1.337037 0.660040 -4.467169 25 71 243
-0.287380 0.428557 0.680694 84 78 56
-0.189097 -0.036579 0.318865 17 31 30
-0.158508 -0.011718 0.271810 72 66 44
-0.179373 -0.025186 0.303779 9 27 28
-0.169752 -0.010083 0.287179 72 66 44
-0.122126 0.012848 0.207238 57 82 92
-0.080740 0.020385 0.133425 102 92 67
-0.279401 -0.157230 0.434755 34 40 35
-0.270692 -0.139093 0.426030 44 49 43
-0.162513 0.036112 0.276608 58 78 89
-0.277342 -0.147089 0.435371 47 51 50
-0.206077 -0.007598 0.350695 122 145 161
-0.206077 -0.007598 0.350695 161 145 122
-0.213959 0.000812 0.366995 121 141 152
-0.213959 0.000812 0.366995 152 141 121
-0.233384 -0.026000 0.395130 113 138 148
-0.217343 0.020958 0.383163 170 159 139
-0.162922 0.402082 0.573712 86 102 109
-1.242857 0.754436 3.106983 122 111 91
-0.210431 0.438241 0.586810 72 94 100
-0.387107 0.300017 1.261281 254 254 254
-0.387107 0.300017 1.261281 254 254 254
-0.159493 0.381359 0.585950 122 116 92
-0.299936 0.318054 0.965764 16 243 246
-0.309497 0.318247 1.004996 255 250 255
-0.150867 0.384873 0.579275 121 142 170
-1.188738 0.809514 3.892490 254 252 255
-0.176808 0.350640 0.639507 1 131 168
-2.480122 1.673120 8.864723 248 255 247
21.276581 -13.786080 -77.454832 254 254 254
-2.476285 1.692947 9.098080 253 254 255
-4.507401 3.049294 16.851747 254 254 254
-0.354032 0.333126 1.213840 254 254 254
-0.338706 0.327194 1.162457 254 254 254
-0.332293 0.325337 1.155504 254 254 254
-4.154512 2.887942 16.244981 251 254 255
-0.146072 0.386531 0.584463 147 114 0
-0.146072 0.386531 0.584463 0 114 147
206.721119 -142.219798 -824.803246 254 254 254
3.001808 -2.046375 -12.385178 254 254 254
-0.207478 0.310917 0.758205 81 69 0
-0.666871 0.534813 3.230732 114 134 145
-0.209281 0.314016 0.770262 114 92 0
-40.534137 28.675993 169.001035 252 254 255
-0.240062 0.321881 0.860087 191 143 9
-0.227883 0.308460 0.833745 8 28 163
-0.227883 0.308460 0.833745 163 28 8
6.512012 -4.626062 -28.158426 254 254 254
-0.252782 0.322440 0.933170 160 33 0
-0.262341 0.308547 0.962733 50 61 159
-0.262341 0.308547 0.962733 159 61 50
31.473981 -23.082228 -140.772367 255 253 254
-0.316219 0.325023 1.172460 39 77 28
27.883583 -20.462674 -124.849318 255 253 254
4.705636 -3.466863 -21.532784 254 253 255
-0.412733 0.222308 1.613837 91 139 151
-0.190599 0.321921 0.723828 184 148 8
-0.236514 0.307244 0.886555 45 66 158
-0.259022 0.325766 0.994280 158 66 45
-0.211403 0.294855 0.777381 32 138 155
-0.248887 0.325824 0.944434 182 140 6
-0.234928 0.320454 0.876516 12 137 175
-0.342095 0.344902 1.321885 39 82 37
-0.196020 0.318177 0.745764 0 94 111
1.875550 -1.516341 -10.101082 149 137 121
1.875550 -1.516341 -10.101082 121 137 149
-0.167332 0.346273 0.648459 174 153 136
-0.245665 0.325791 0.937337 0 145 182
-0.161479 0.350876 0.640222 172 151 134
-0.230522 0.318735 0.866338 48 141 142
-0.247480 0.326612 0.951027 178 148 0
-0.142843 0.382124 0.589990 0 101 128
-0.247438 0.326775 0.952959 180 147 0
-0.224278 0.302823 0.859953 8 33 161
-0.163656 0.347637 0.647736 174 153 136
-0.162056 0.349479 0.643578 136 153 174
-0.247229 0.327354 0.960173 180 144 4
-0.247229 0.327354 0.960173 4 144 180
-0.351738 0.348498 1.392846 78 165 114
-0.166453 0.343490 0.658043 57 80 75
-0.213039 0.302011 0.836503 171 148 0
-0.550455 0.485443 2.383239 230 249 246
1.719039 0.920733 -7.936312 34 32 19
-0.376931 0.367292 1.551816 141 189 87
-0.167380 0.299116 0.589697 28 40 16
-0.357170 0.354709 1.456114 57 104 36
-0.237662 0.308230 0.932784 163 30 15
-0.585805 0.509661 2.593890 233 248 250
-0.279229 0.318589 1.124699 187 151 125
-0.211164 0.320530 0.816194 8 144 173
-0.296450 0.334669 1.209508 170 32 6
-0.328802 0.344268 1.377220 0 51 159
-0.290514 0.325974 1.210984 192 129 96
-0.229898 0.303803 0.927033 0 56 150
-0.180260 0.326764 0.720952 143 103 8
-0.305750 0.334789 1.293506 12 35 167
-0.240002 0.310084 0.976192 167 33 4
-0.384867 0.383912 1.733983 37 76 44
-0.242888 0.301879 0.995183 184 145 146
-0.749216 0.650474 3.691979 245 255 254
-0.360793 0.313534 1.454537 254 254 254
-0.263162 0.319550 1.128652 117 139 180
-0.505338 0.482683 2.512012 255 251 250
-0.416612 0.413756 1.990877 85 127 62
-0.244740 0.304616 1.029853 173 155 117
-0.255087 0.314250 1.104734 87 118 187
-0.896601 0.832898 5.115599 254 254 254
-0.211490 0.311840 0.892682 6 150 178
-0.264946 0.323948 1.189850 161 31 7
-0.583987 0.571468 3.220296 252 254 254
-0.965151 0.913035 5.762110 254 254 254
-0.207349 0.312877 0.880338 14 143 176
-0.279176 0.248496 1.160048 254 254 254
-0.278351 0.248616 1.157766 254 254 254
-0.230751 0.322908 1.014977 178 153 9
-0.271240 0.337282 1.358260 0 149 183
-1.001393 1.088418 7.495982 136 125 105
-0.267892 -0.069042 0.620593 22 33 31
-0.151581 0.109520 1.046076 30 27 18
-0.167723 0.048193 0.887050 22 33 31
-0.167723 0.048193 0.887050 31 33 22
-0.068488 0.151183 1.369163 16 27 25
-0.068488 0.151183 1.369163 25 27 16
0.249503 0.246646 2.938019 16 25 28
0.302580 0.290971 3.021279 168 161 145
0.020328 0.381933 0.419742 0 29 34
-0.065987 0.408083 0.583066 96 89 73
-0.075597 0.406950 0.690219 86 102 109
-0.070790 0.006321 0.866980 18 18 16
-0.060655 0.422025 0.653112 87 109 115
-1.480902 1.363893 2.559436 106 94 80
-1.480902 1.363893 2.559436 80 94 106
-0.731908 1.378750 1.830275 105 94 74
-2.096907 -0.051525 4.501324 66 89 105
-3.817228 -0.803736 8.238693 134 124 99
2.159590 -1.548350 -5.555209 92 106 118
-21.863409 19.140456 64.032755 240 212 86
-7.259694 6.498281 23.224488 89 109 120
-1.189070 0.153984 3.320488 75 67 54
-0.927047 1.261796 2.943292 3 27 151
-0.928606 1.259490 3.006983 156 33 2
-0.738388 1.281782 2.177913 0 130 167
-0.727344 1.281554 2.129229 164 123 0
-1.033217 1.664107 3.209116 5 137 174
-1.033217 1.664107 3.209116 174 137 5
-0.724242 1.266241 2.187117 4 132 173
-0.885911 0.746189 3.277681 129 118 98
-0.816083 1.089801 3.170809 174 247 245
-0.710244 1.314944 2.086758 160 121 2
0.368684 -0.742520 -1.226373 121 139 170
-0.418150 0.597978 1.981981 242 252 215
-0.617001 1.284502 2.063556 6 103 159
-0.258667 0.256049 1.317414 143 132 114
-0.206641 0.216086 1.167361 119 133 145
-0.829892 1.306388 3.552575 184 150 24
-0.464220 0.925587 2.061176 28 151 183
-0.661018 1.261487 3.108287 111 98 0
-0.399399 0.774266 1.910832 15 140 178
-0.220758 0.348819 1.363149 254 254 254
-0.207134 0.360988 1.129349 10 37 171
-0.318646 0.498543 1.837044 254 253 255
-0.146055 0.246255 1.061112 110 145 159
-0.124384 0.216151 0.973197 141 125 109
-0.218293 0.367032 1.406125 248 254 255
-0.114787 0.197182 0.962445 134 123 103
-0.073169 0.126881 0.680196 103 123 134
-0.174919 0.234522 1.126421 134 122 108
-0.031706 0.004591 0.062561 27 40 42
-0.254013 0.997151 1.760212 142 130 116
0.053260 0.187482 -0.762228 19 33 32
0.053260 0.187482 -0.762228 32 33 19
0.055267 0.168724 -0.717481 24 37 39
-0.055732 0.555856 1.022023 93 87 61
-0.003718 -0.002057 0.168430 135 151 158
-0.253395 0.408663 -0.925899 74 73 53
-0.255374 0.408424 -0.928317 123 154 163
-0.110016 0.074361 -0.413401 105 95 70
-0.182279 0.203563 -0.667485 172 195 211
-0.182279 0.203563 -0.667485 211 195 172
-0.088467 -0.041950 0.131568 124 117 101
-0.089410 -0.040840 0.135095 101 117 124
-0.263763 0.107491 0.764865 140 134 112
-0.059826 0.080544 0.198496 102 124 130
0.021675 -0.147327 -0.207638 122 111 91
-0.396147 0.243467 1.403112 103 125 131
-0.140392 0.050332 0.325817 128 122 100
-0.318458 0.162639 1.175781 114 132 139
-0.062036 0.165087 0.245898 126 120 98
-0.153713 0.109190 0.559022 109 131 137
-0.318604 0.165004 1.335994 128 124 95
-0.311208 0.175849 1.263423 0 201 229
0.679087 -1.122918 -3.991335 214 182 3
-0.917636 1.082011 5.882782 3 180 217
-1.408432 1.707683 9.686604 215 178 1
-0.087845 0.086387 0.427703 1 174 212
0.126349 -0.395540 -1.455467 219 183 1
-0.045798 -0.063987 -0.066810 103 125 131
-0.044465 -0.051852 0.369198 170 152 128
-0.042773 -0.048135 0.363913 112 134 140
-0.036528 -0.050846 0.278409 140 134 112
0.011628 -0.098653 0.326697 28 71 240
-0.000661 -0.142904 0.408445 254 114 53
-0.000661 -0.142904 0.408445 53 114 254
-0.006672 -0.195723 0.442404 43 41 29
-0.006672 -0.195723 0.442404 29 41 43
-0.027447 0.294602 0.389643 92 86 64
-0.376930 0.351871 0.858462 121 115 93
-0.283680 0.370809 0.891541 104 120 127
-0.218136 0.303022 0.840632 125 119 97
-0.146485 0.201041 0.775216 0 170 214
-0.121140 0.196309 0.655470 219 176 1
-0.105897 0.182231 0.631763 1 176 219
-0.100344 0.176183 0.621643 216 173 0
-0.153358 0.261625 0.807516 3 167 212
-0.146904 0.254607 0.802824 214 169 6
-0.177597 0.356233 0.828778 25 50 200
-0.177597 0.356233 0.828778 200 50 25
-0.102463 0.159197 0.746679 1 164 213
-0.172570 0.344562 0.841591 200 72 45
-0.168492 0.347862 0.822596 135 166 229
-0.126672 0.253715 0.833376 205 150 0
-0.091161 0.148348 0.739307 0 172 213
-0.142462 0.311938 0.813809 222 174 2
-0.161463 0.360273 0.840471 17 152 236
-0.133562 0.278729 0.809088 218 171 3
-0.108929 0.230609 0.787862 101 123 129
-0.121137 0.279718 0.747460 101 78 24
-0.088264 0.208540 0.773303 113 127 139
-0.096786 0.254970 0.784681 131 124 108
-0.080025 0.199485 0.767399 112 128 140
-0.034098 0.144888 0.529321 141 130 110
-0.060080 0.191058 0.742970 115 135 146
-0.086152 0.270001 0.763773 129 122 106
-0.044384 0.145224 0.725547 120 138 145
0.087912 -0.911853 -0.996601 68 62 40
0.102095 0.133728 0.699268 73 82 95
0.208891 -0.123241 0.481703 136 125 105
0.033689 0.013753 0.167148 38 64 70
-0.333474 0.305439 0.537832 69 63 37
-0.210071 0.236834 0.348501 52 78 84
-2.549176 2.490620 4.795987 90 84 58
-0.209192 0.215620 0.583874 85 105 116
-0.239257 0.452110 0.842871 100 93 77
-0.239257 0.452110 0.842871 77 93 100
-0.119982 0.068483 0.414834 191 181 154
-0.161593 0.103523 0.453487 40 64 22
-0.151908 0.091007 0.426162 190 142 0
-0.147144 0.085241 0.412215 0 145 197
-0.144173 0.084059 0.407183 178 123 0
-0.144091 0.084070 0.407203 0 123 178
-0.144235 0.081793 0.403266 203 149 14
-0.208051 0.467560 0.866617 80 102 108
-0.147570 0.145363 0.507157 199 147 0
-0.152731 0.168431 0.694205 76 105 114
-0.130162 0.105957 0.619811 120 109 89
-0.130087 0.106223 0.619988 89 109 120
-0.119034 0.171847 0.544985 105 99 77
-0.116617 0.164863 0.538758 96 112 119
-0.180327 0.499189 0.909971 61 54 38
-0.151087 0.103746 0.660329 101 117 129
-0.065268 -0.014763 0.339696 135 117 105
0.177866 1.037498 1.592662 45 77 82
-0.078504 -0.116839 -0.263336 87 87 63
4.207075 8.673192 13.023757 32 58 64
-0.329693 0.373353 1.392719 39 32 16
0.274832 -0.561812 -0.948304 41 57 64
-0.101441 0.047337 0.133161 64 57 41
-0.254542 0.179267 1.139161 242 219 151
-0.235221 0.161163 1.145090 253 222 0
0.390754 -0.743935 -1.834220 38 60 66
-0.705166 1.106566 3.286677 40 32 21
-0.729594 1.196885 3.487898 12 28 35
-0.282056 0.150521 1.391244 170 129 13
-0.547128 0.670533 3.254148 12 42 161
-0.268266 0.246685 1.384347 203 162 0
-0.471391 0.566968 2.896946 0 156 206
-0.248264 0.226932 1.332948 116 81 0
7.706778 -27.402606 -60.774278 63 85 91
-0.033530 -0.085419 0.313722 135 124 104
-2.084546 -5.105318 -6.682647 25 49 49
-0.246590 0.249929 0.555263 42 40 19
-0.306764 0.229897 0.756258 37 57 68
-0.309886 0.192442 0.784585 78 66 52
-0.399564 0.315327 1.487453 168 188 199
-0.254086 0.054673 0.649335 209 188 1
-0.424965 0.349068 1.690360 67 103 13
-0.439283 0.316050 1.711445 120 105 76
-0.273643 0.289387 0.895071 81 103 109
-0.448426 0.392272 1.910856 146 130 107
-0.449384 0.393889 1.918587 107 130 146
-0.449384 0.393889 1.918587 146 130 107
-0.449881 0.386965 1.907477 101 124 140
-0.335175 0.437851 1.507515 93 134 162
-0.303427 0.458742 1.416123 190 166 130
-0.614235 0.780698 2.801594 125 176 207
-0.314129 0.348589 1.434105 57 185 203
-0.292393 0.401214 1.363221 134 175 203
-0.308839 0.372509 1.377857 170 190 201
-0.309030 0.357102 1.509367 196 179 161
2.373309 -2.052216 -12.792289 3 188 216
-0.307321 0.358619 1.530298 198 181 163
-0.281417 0.457959 1.497527 0 189 216
-0.295890 0.363694 1.398831 194 183 163
-0.299441 0.367898 1.627571 0 151 183
-0.290025 0.357527 1.400578 136 102 30
-0.409439 0.473008 2.001207 0 15 24
-0.287489 0.355870 1.403436 91 80 50
-0.351992 0.439615 2.146446 41 82 104
-0.521006 0.651182 2.909961 26 18 7
-0.210050 0.524885 1.732049 4 17 19
-0.230219 -0.053356 -0.554208 55 48 32
-0.245600 0.138560 0.411675 66 60 38
-0.247018 0.137691 0.424617 42 64 70
-0.154751 0.003116 0.173564 120 110 85
-0.154564 0.172131 0.323869 39 55 62
-0.150673 0.198622 0.318187 50 44 22
-0.274963 0.139338 0.908758 74 112 16
0.355884 -0.260349 -1.279686 219 41 3
2.137682 -1.493205 -8.101738 0 186 207
-2.421884 1.684029 9.740272 203 192 172
0.084007 -0.154591 -0.393243 73 95 101
-0.214289 0.178628 0.678994 230 205 0
-0.215236 0.177523 0.696649 3 202 228
-2.238546 1.633121 9.761014 151 129 116
-2.238546 1.633121 9.761014 116 129 151
-2.341293 1.712015 10.226460 151 129 116
-2.341293 1.712015 10.226460 116 129 151
-1.334768 0.951889 5.783233 202 193 2
-0.165944 0.130792 0.584446 184 204 215
-0.127850 0.155477 0.474232 228 202 3
-0.091352 0.076727 0.249066 5 196 211
-0.167496 0.129963 0.605538 221 203 181
-0.101943 0.120745 0.343655 0 12 17
-0.126099 0.151091 0.496830 156 90 68
-0.190872 0.078088 0.745497 7 122 159
0.031281 -0.036562 0.023956 101 94 78
-0.166194 0.123511 0.662999 56 76 87
-0.226301 0.156877 0.944254 86 75 55
0.119627 -0.299103 -0.265301 21 47 53
-0.006345 0.279547 -1.259440 100 89 69
0.093802 0.237375 0.516480 26 42 49
0.086268 0.004140 0.199544 108 102 76
0.082205 -0.038545 0.066079 21 57 63
-0.084989 0.240176 0.391977 63 57 35
-1.100770 1.119265 2.874649 37 59 65
-0.897395 0.504863 2.830508 221 52 0
-0.205554 0.122465 0.807357 19 65 196
-0.242222 0.112501 0.974371 133 107 22
-0.098583 0.111597 0.544667 66 86 97
-0.196292 0.085305 0.834821 146 117 0
-0.441540 0.468825 1.566843 53 73 84
-0.494690 0.585300 1.683075 95 85 58
-0.319451 0.298986 1.216639 0 65 80
-0.183977 0.077769 0.812363 171 119 0
-0.552379 0.552919 2.253262 59 89 172
0.109469 -0.141333 -0.387379 161 14 0
-0.261326 0.222111 1.088427 94 98 186
0.104043 -0.138290 -0.366780 15 7 0
-0.107332 0.117801 0.628066 2 5 19
-0.202879 0.144103 0.933655 174 122 2
-0.165174 0.111255 0.804971 4 67 101
-0.111176 0.079231 0.570854 20 12 1
-0.207830 0.133218 0.982970 54 65 79
-0.199755 0.152227 0.957525 41 38 7
-0.004232 0.028482 0.129213 0 12 14
-0.123405 0.079214 0.817638 89 78 58
0.002616 -0.114513 0.516134 81 99 116
0.113912 0.243793 0.405027 74 63 43
-1.632226 0.876204 2.331289 82 76 54
-0.943120 0.604573 1.540322 44 70 76
-0.342046 0.241910 1.154183 56 45 25
-0.306416 0.176678 1.035465 47 67 78
-0.418278 0.389497 1.601311 60 52 39
-0.031996 -0.110817 -0.139404 52 74 80
-1.711003 1.860798 5.109633 21 14 0
-0.276594 0.169606 1.190730 171 194 210
0.990232 -1.496268 -4.680118 105 98 82
-0.243211 0.142434 1.004310 180 203 219
-0.376524 0.389672 1.904900 145 140 38
2.295701 -3.284518 -11.128875 79 95 102
0.199543 -0.552107 -1.452454 60 53 37
0.346936 -0.742151 -2.584441 108 126 127
-0.373046 0.399296 1.616269 128 105 35
-2.039473 3.526727 8.994658 42 53 61
-2.616528 3.685108 14.298984 13 8 4
-2.678742 5.373195 21.440481 4 13 16
-0.042267 0.218248 0.680753 88 82 56
-0.014383 -0.071926 0.178090 70 90 101
